# .PCD v0.7 - Point Cloud Data file format
VERSION 0.7
FIELDS x y z
SIZE 4 4 4
TYPE F F F
COUNT 1 1 1
WIDTH 100
HEIGHT 1
VIEWPOINT 0 0 0 1 0 0 0
POINTS 100
DATA ascii
0.3786616 0.2277878 0.4003221
0.6077366 0.7171861 0.9561692
0.5685649 0.8714216 0.4278532
0.7902936 0.008228956 0.8466204
0.09964349 0.2922653 0.754102
0.2833771 0.5346854 0.6630554
0.1402559 0.7434696 0.5755415
0.5751737 0.02075504 0.9829464
0.9725304 0.8525953 0.6553646
0.2893752 0.9996045 0.07321602
0.651552 0.0578517 0.03157477
0.2842197 0.06808369 0.129109
0.5716929 0.252817 0.8813571
0.8625312 0.05852752 0.6838737
0.04322835 0.06464201 0.9409174
0.1270027 0.9892642 0.5876651
0.4832419 0.1303719 0.2708747
0.3429407 0.6322779 0.8719487
0.9299845 0.778888 0.1428635
0.5926744 0.1408466 0.3364671
0.1285656 0.1248772 0.3822149
0.8180619 0.3951646 0.09394373
0.1656452 0.6807678 0.4495509
0.2121325 0.206058 0.561244
0.5945802 0.2000419 0.6284481
0.9887509 0.9832147 0.2486138
0.03252935 0.7566476 0.4300351
0.7309682 0.2869622 0.9313616
0.7370929 0.4672554 0.1687834
0.9399309 0.6744709 0.1068599
0.7035517 0.8660414 0.1308299
0.3012647 0.8977985 0.9475479
0.7044446 0.6207764 0.2420679
0.7024353 0.3487538 0.2051537
0.8611721 0.5508684 0.650908
0.7030752 0.003338076 0.4243052
0.5983039 0.718533 0.2306859
0.7357531 0.008894984 0.0323887
0.2476718 0.5928552 0.2817698
0.1141536 0.997078 0.3128124
0.7830399 0.411853 0.4005212
0.383651 0.6559381 0.9882336
0.6807881 0.5170914 0.4192677
0.1601911 0.4379633 0.2132181
0.7783815 0.8963851 0.9502587
0.8386245 0.7185277 0.06132801
0.3930026 0.604005 0.9875367
0.4264757 0.3565008 0.9743764
0.8410187 0.6406233 0.4813525
0.02421567 0.9373316 0.1206001
0.2248754 0.2407435 0.854399
0.2726498 0.1046772 0.3843594
0.9117684 0.9928538 0.5271338
0.8738028 0.2364868 0.7850045
0.2590553 0.5033394 0.5969482
0.007385594 0.73175 0.1815386
0.7195973 0.7170694 0.6427013
0.6135793 0.6773707 0.5116267
0.7953976 0.4250712 0.784158
0.2827734 0.5517071 0.1106929
0.6987011 0.4528717 0.3425057
0.1892332 0.5204595 0.6114391
0.3375711 0.4779212 0.2326682
0.5613906 0.8890296 0.4053531
0.3388887 0.5261563 0.8945
0.3183474 0.5920658 0.354869
0.9625589 0.02831244 0.1188715
0.6937698 0.1259393 0.8508574
0.2435006 0.9285986 0.8827701
0.1416184 0.7305308 0.6708466
0.2142153 0.5910025 0.8456903
0.8522175 0.9994715 0.6215829
0.2532755 0.4433943 0.6325561
0.6523145 0.6212996 0.2371603
0.605318 0.4401027 0.1203752
0.2388091 0.572554 0.1130772
0.4140961 0.2212989 0.861841
0.3067678 0.3064815 0.7374831
0.4414224 0.6533306 0.3358144
0.6321177 0.3241885 0.6959938
0.2375363 0.1006248 0.1133563
0.1099059 0.2483418 0.878765
0.3126962 0.7891163 0.7505003
0.8606042 0.7967705 0.6008316
0.3151546 0.55104 0.4641069
0.4993591 0.6464114 0.9360051
0.8887228 0.7245661 0.03547833
0.7345034 0.2674017 0.8469925
0.8630745 0.03734069 0.5509889
0.7947201 0.5688369 0.2327544
0.5759643 0.8309189 0.5042041
0.381312 0.1211107 0.671083
0.1815076 0.1466232 0.1198106
0.02751087 0.5196258 0.5781877
0.2577916 0.2894158 0.009984259
0.551325 0.2918251 0.7108537
0.7676329 0.2785687 0.897059
0.7883891 0.5118516 0.6054063
0.668397 0.5185837 0.6595835
0.6578059 0.8608476 0.7917057
